# 3D point list with one line of data per point:
#   POINT3D_ID, X, Y, Z, R, G, B, ERROR, TRACK[] as (IMAGE_ID, POINT2D_IDX)
# Number of points: 344, mean track length: 6.3645601336302899
7113 -1.0337156779361634 1.3240042819201689 2.8731344731992854 78 77 74 0.76577903169696571 19 789 24 1890 26 1945
7115 -0.88703403378720436 1.3137623868132131 2.9276124618021471 94 94 92 0.025027184560532923 20 796 24 1899
7116 -1.0369786100213942 1.26966151929366 3.1055251247838407 86 67 78 0.27437102035126526 20 1784 24 1904
7117 -0.99940166979044587 1.5313552305735589 1.7362673041658141 86 91 84 1.4332658284979118 19 883 24 1930 25 1970 23 907 26 1960 27 2551 28 2599 32 3247 33 3468
7119 -0.52630411889547724 1.5118251035150632 1.6427946007156922 102 100 103 0.84724874213366685 22 1919 23 1910 24 1954
7120 -0.5462615684005877 1.5114994414842597 1.9954066474370158 95 94 93 0.52757170759804073 21 941 24 1965 26 2633
7121 -0.55030296394253342 1.455292816141591 2.2420485193222235 49 43 47 0.74850104339499934 22 943 23 1892 24 1966 29 2882 32 3464
7122 -0.39755926316605744 1.6111888387097562 1.9452192685161305 141 110 144 1.6133687358066682 22 1047 24 1980
7123 0.11765220425550732 1.4941753647160805 1.5444410947281777 141 104 145 1.8138910926206131 23 1938 24 1981 103 1143
7125 -0.24454798960362545 1.5235202657283458 1.9836477318852388 96 96 94 0.81413806396698163 25 2034 29 2887
7126 -0.073538125863094314 1.6439865476169078 1.3061251340543303 69 63 75 0.54819118806164346 21 1049 24 1993 25 997 26 970 28 930 32 2289 79 2196 77 2464 78 2104 75 1951 76 2211 73 1946 72 1745 71 1918 70 1928
7128 0.39603141113051138 1.729976789680949 0.96135452596672066 102 76 85 0.26463191163522592 21 1086 24 2035 75 683 74 664 70 1806 18 2008 68 677 67 685
7129 0.87804774128891871 1.6806948867526808 1.3486686856402723 91 122 62 0.357608566718222 22 2050 24 2081 25 2213 26 2181 27 2292 28 2655 74 1344 72 1587 71 1774 69 1745 68 1583 67 1475 65 1506
7131 0.3923284773096109 2.0014481802029187 -0.49440787707645023 137 64 119 0.067409856287043005 22 2204 24 2201
7132 0.97137709729682808 1.7457865014421659 0.4434373963113919 124 90 125 1.4114239546086513 22 2144 24 2254
7133 0.82282089274578452 1.840389723493421 0.54738701302236459 121 92 126 0.057377753574039903 23 2282 24 2260 22 2253
7134 0.83128551919787419 1.817946591734233 0.64335126879738336 144 107 147 0.30810654373952018 22 2169 24 2264 25 2316 26 2286
7136 -4.592718703148619 -0.73030834753019047 2.9696827409752311 126 127 122 1.0873099138374216 22 2304 24 2310
7137 -3.4573764892861405 -1.0599933029640038 4.5758715950083175 80 100 101 0.61745340672176863 21 1484 22 171 24 2314 25 2362 23 2349
7138 -4.1819721118980295 -0.67010821525906594 4.7228884783840019 30 57 10 0.83847813128014548 16 1579 24 2324
7139 -4.2509558364593962 0.022677877848801854 3.4253007473088153 124 124 124 0.40782136266370506 18 1540 22 2342 24 2334 25 2400 29 2679 30 2980
7140 -4.674906402885104 0.52532468521714848 2.7731299686958217 123 120 118 0.2413833291724673 22 2713 23 2784 24 2344 21 2749
7141 -1.8271278692738067 0.38962892689911094 3.0643980099979329 0 0 0 1.4551848962019684 2 2181 9 2464 21 2431
7142 -4.7951611554975724 1.190970977694388 1.015390119817255 129 129 130 0.21572781144602049 22 2381 24 2372 34 2305
7143 -3.5924002903818271 0.59408561982014496 3.4486850720734168 83 83 83 1.2859006172273464 19 1601 25 2450 24 2381
7144 -3.9139620190049493 1.4328643953847668 1.2720855136925679 36 102 75 0.61472503831688907 22 2762 24 2430 21 2475
7145 -3.3226702331518778 1.3424440281456054 1.2941275420698819 37 66 54 0.98434865456004406 22 1714 23 2848 24 2433 25 2501
7146 -4.1448844869802528 1.744970626903283 -0.32009504303922093 69 68 66 0.50050505404542378 22 2436 24 2445 26 2516
7148 -2.5001431052536782 1.5859818310927805 0.94033011148306311 105 105 103 0.38659859834282179 18 1767 24 2475
7150 -1.4807936772904571 1.1448797299491253 1.7496194440612152 25 23 23 1.629294169192065 20 655 24 2485 25 2550 21 1808
7151 -1.698861613756754 1.4041351328843346 1.9523437980756668 116 116 113 1.7336910788012589 22 1812 23 1800 24 2495 21 759 25 2569 26 2569 27 2505 28 2890 29 2841 30 2886 31 3420
7152 -1.7071495251807902 1.4041313069869246 1.9570024531194032 116 116 113 1.9637421728713633 22 1813 23 1801 24 2496 21 760 25 2570 26 2570 27 2506 29 2842 28 2889 30 2887 31 3421 32 3419
7153 -1.5045207116137802 1.3874087200972347 1.7141158317753724 22 18 17 1.9884812161303229 21 2536 24 2498 22 2476 25 2887
7154 -1.4853643701166188 1.3973537434966423 1.7801173442593972 100 90 100 0.69001411443682292 22 1819 23 2547 24 2500
7155 -2.038163268812903 1.4728798451718499 2.6976682756641845 0 0 0 1.6772070365511624 4 616 12 721 13 749
7156 -1.271701531739811 1.5250597416576492 1.7055648389962486 62 122 109 1.1336302268910361 22 2841 23 2917 24 2515 26 3200 27 1934 29 1965 31 3210 38 4613 120 859
7157 -0.54700803337744042 1.475804713174786 2.2363770076275418 58 59 58 1.4983464398976829 10 808 24 2548
7158 -0.25868869497142349 1.4866766359724983 2.2212054058324502 63 61 62 1.5763206170268218 18 1862 23 2605 24 2555 19 1877
7159 -0.078247030845609619 1.4392102227907735 2.4340128169306059 134 136 132 0.27715874953737113 16 991 24 2563 17 967
7160 -0.25521484194805122 1.7315441033331114 0.54496523044139411 185 185 183 0.11877619756041374 22 2559 24 2565 25 2628 26 2649
7161 0.31775817714102922 1.5755637622107452 1.7960159293746498 70 121 125 0.32655879014268263 22 2565 24 2598 25 2656 26 2677
7163 1.2938647174781961 1.177151734958662 -1.1533908436933431 0 0 0 1.579107849998167 13 1102 15 1118
7165 0.89809266078354977 1.6866333960271933 1.3183299675099724 94 139 74 0.34552189842030978 21 2645 24 2627 25 2667 26 2688 76 654 78 515 72 1584 70 1821 69 1746 68 1823 66 1614 19 2018 65 1505
7167 -3.2582374518137289 -1.6224853996280078 4.4948193418726978 89 102 108 1.0187748247031945 18 2480 22 2949 24 2662
7168 -4.4956690187955806 -0.92259040420821359 4.6385922464457972 33 59 20 1.523525116273017 8 2912 16 2487 24 2685
7169 -4.6791492824427383 -0.15940867590879346 0.72611456527093965 82 41 45 0.04360523075137876 17 2516 24 2692
7170 -3.8065957102399026 -0.54699800235160168 4.692672375731024 80 95 101 1.6240315603687834 22 2687 24 2701
7171 -2.8516486534907188 -0.41791161346835315 4.7478051857627905 21 23 38 0.31669661576710556 5 2211 24 2724 119 1852
7172 -4.5276020183391461 0.08552194605471905 3.3502278716201448 69 41 36 0.68797604763655595 22 2994 23 3033 24 2729 25 2752 26 2386 27 1682
7173 -4.2802976128558026 0.05181056422122695 3.4834227610461368 46 21 16 0.73731075312266248 16 2541 24 2733 25 2755 27 2937 26 3054 28 3005 29 3146 30 3196 31 3516
7174 -4.7673041212827645 0.80586632959305593 1.4368271323123041 63 46 30 0.22307611775176966 17 2560 24 2757 25 2771 26 2790
7175 -3.1071527390277613 0.68954248737573376 1.1260641245683567 100 99 96 1.2488406028662948 20 2583 21 2754 24 2761 25 2427 26 2415 28 1749 27 381
7176 -2.7184684826093535 0.4962856873892299 2.6316224239352612 27 24 23 0.056997689932580468 22 2370 27 1737
7177 -2.5677842107913063 0.54832025624525638 2.5842479054339575 63 38 41 1.1533144266115787 22 2371 24 2769 26 3073
7179 -2.3891463412880452 1.0103092531947153 1.2469806319367689 54 39 67 1.3007265391134706 5 2680 23 3354 24 2804 4 2699
7180 -4.3463097900584806 1.0363002350700405 3.3683685448574918 57 58 56 0.70207517711877643 22 2751 23 2829 24 2805 25 3058 26 3092 29 3292 30 3328 31 3629 32 3606 33 3833
7181 -3.4912771469228785 0.98768166112456091 3.2735068961265017 24 36 30 1.3272041510256098 22 2401 23 2830 24 2807 25 3094 26 3381 27 3273 28 3560 29 3502 30 3662 31 3988 32 4023
7182 -4.823638685686821 1.7846132651170217 -0.56387962826272275 98 98 96 0.67281146587840934 22 2776 23 2836 24 2811 21 2804
7183 -1.033378300745712 0.93485061882996456 1.2405651276011751 75 126 133 1.6516266223652414 21 3306 24 2820
7184 -4.2221045141889952 1.8631059786209716 -1.0195403516699284 33 44 39 0.65303432629832192 22 3129 23 2864 24 2835
7185 -4.0495770460251048 1.7600180500669962 -0.4565721277883682 78 75 74 0.77656480115555648 22 2779 24 2840
7188 -1.5080570735695205 1.8378219033459455 -0.05722924827736469 78 171 136 1.720629838102909 21 1946 23 1902 18 1894 24 2907 73 1921 27 878 71 2383
7189 -1.2491850858154196 1.5713977682645697 1.1642486450379204 107 110 104 0.44934351435747166 19 2376 106 1925
7192 -1.0179554980097301 1.7022630713635616 0.93489379099175995 0 0 0 0.34176797817345689 1 2106 11 2608 121 2106
7194 0.84718899842174922 1.7945319951865322 0.73214664661227646 128 94 131 0.24830622528391111 21 2942 23 2988 24 2967 77 1883 79 425 75 1341 76 1617 74 1247 72 1531
7195 -3.2509899277609255 -1.3213488612148163 4.4983155354884827 96 103 84 0.52890801709298285 21 2963 24 2982 25 2965 20 2501
7196 -4.6928599847868346 0.18044649739561322 -0.82560168489883223 89 38 45 0.65998071406459502 21 3256 23 2735 24 2993 28 2687 34 3331 37 3965 39 4000 41 3693
7197 -4.7165933446798096 -0.21264466023414522 3.1147644465164501 115 115 114 1.0479546832691582 21 2716 22 2974 24 3000 25 2982 26 3039 27 3139 28 2991 29 2923 30 3192 31 3793 28 3519 32 3494 33 3275
7198 -4.2165619110900172 0.3214695798466442 3.7168277619151504 34 16 16 0.97195354699308645 22 2716 24 3031 21 2751
7199 -4.6560793469067674 0.82490302477540578 2.7627488674741723 51 44 29 0.391214824235813 21 2441 22 2734 23 3061 24 3043
7200 -4.7323973355568105 1.7943865719399505 -0.68381156154293243 20 20 20 0.062038755667900868 22 3110 24 3068 21 3109
7201 -4.7289885994258629 1.7836139875125985 -0.60743087987256772 20 22 19 0.53454321194275722 22 3114 23 3363 24 3070 21 3110 26 3108 27 2991 28 3046
7202 -4.7519865327509159 1.7844840966156503 -0.60584785541909392 20 22 19 0.79370828785466807 22 3115 23 3364 24 3071 26 3107 27 2990 28 3045 29 2956 32 3091 33 3318 34 3370 35 3462 36 3735
7203 -1.350251705548364 0.95544739527452904 1.7243160181370338 66 122 124 0.10981019800229029 22 2769 24 3082 25 2834 27 2781 28 2847 29 3005
7204 -3.1551474272666171 1.0366546322455674 3.5468232098264947 77 43 64 0.0365926111749377 21 3099 24 3083 30 3353
7205 -4.4358952576634518 1.8630764314437449 -0.99769812768080413 70 68 63 0.25014730952106967 22 3099 23 3107 24 3086 25 2841 26 2865 27 2711 28 2774 29 2725
7206 -3.9729486595755397 1.7527419970010534 -0.28066929249417805 26 22 20 0.16760504930851453 22 3123 23 3119 24 3099
7207 -3.4154264136897794 1.6384653901673401 0.27563452772751101 92 88 87 1.8820859626553579 17 2653 24 3107
7208 -0.0017068997118738023 1.1830649406304397 -1.3498121074458354 81 80 78 3.0407445890685447 23 3527 24 3115
7209 -3.9293918916013877 1.8897777178132726 -1.0495229762351121 101 65 67 0.45094868035751351 22 3310 23 3138 24 3116 25 3101 26 3387 27 3277 28 3074 29 3296 30 3036 31 3309
7210 -3.3789219120639107 1.9231051463513815 -0.99569730263728484 74 70 69 0.86163102995964058 22 3153 23 3160 24 3117 25 3127 26 2892 27 3036 28 2857 29 2791 31 2839 34 2434 40 537 36 2787
7211 -3.3288392306245624 1.8464370611803991 -0.60595666841032669 90 89 86 0.30033572894001453 22 3318 23 3139 24 3118 25 3128 26 3154 27 3040 28 3095 29 2986
7212 -3.4848378786144467 1.7249255991888897 -0.019997001544116419 29 30 34 0.54644869466902013 22 3132 24 3119 23 3376 25 3360 26 3392 27 3281 28 3362 29 3303 30 3338 31 3642 32 3609
7213 -3.4601944385650851 1.7001381317673667 0.11178623339182713 39 38 34 0.2922283710334147 22 3134 23 3143 24 3121 25 3118 26 3141 27 3022 28 3081
7215 -1.4275560182805991 1.8588227818602814 -0.15674868792541383 87 85 86 0.33573154516781356 21 2869 24 3163
7217 -0.018469566277762355 1.769724003019518 0.35651545529415213 216 216 216 0.49190292831599758 22 3205 23 3208 24 3187 25 3194 26 3225 27 3111 28 3190 29 3114 30 3158 31 3491 32 3472 33 3696 34 3735 35 3836 36 4060 37 4337 38 4624 39 4624 40 4352 41 4038 42 3762 43 3609 44 3423 45 3419 108 2131 106 2087 104 1992 105 2048 103 1977 102 1948 101 1932 100 1836 99 1696 98 1617 97 1537 96 1392 95 1333 94 1222 93 1008 92 1210 91 1221 90 1365 89 1477 88 1733 87 1837 86 2148
7218 0.35598846590163302 1.7284111053203819 0.96334319669559809 109 109 109 1.5282797957664325 18 2720 19 2756 24 3198 17 2728 79 2917 11 2645 72 2301
7221 -3.2556556805643697 -0.73263460839236205 4.5738325340077601 0 0 0 0.3435473670613316 9 3333 11 3369
7222 -3.2556556805643697 -0.73263460839236205 4.5738325340077601 0 0 0 0.3435473670613316 9 3332 11 3368
7225 -1.701898725842486 0.50287293497382668 1.4742978003621656 89 65 91 0.24820384551470748 23 3299 24 3267 25 3270 26 3286 27 3174 28 3244 29 3159 30 3222 31 3531 32 3506 35 4098 37 4596 38 4863
7226 -1.7005432304717003 0.52351498562172671 1.6443978245661612 107 75 114 0.087299303802106265 23 3323 24 3295 25 3300
7227 -2.8470925753342193 0.80468347985914057 2.3470931551964132 101 74 105 1.1438192015697441 22 3281 24 3326
7228 -4.3204141723266902 0.64183954322157799 4.4985172214586759 45 45 45 0.45393287533330517 22 3286 23 3349 24 3330
7229 -2.7296439437250015 0.79302870844136275 3.3511015614808319 41 68 31 1.8479050811579605 22 3294 24 3334 21 3302 25 3349 28 3676 29 3503 30 3530
7230 -4.3068823236365397 1.7447801918349148 -0.27912478350115477 24 24 22 0.9926852153187804 22 3301 24 3341 25 3110 26 3375 27 2997 28 3344 29 2960 30 3316 31 3313 32 3313 33 3538 34 3379 35 3473 36 3750 37 4009 38 4521 39 4277 40 3825 41 3453 42 3484 43 3072 45 1876 48 2816
7231 -2.5003335628943835 1.8460980885576292 -0.26286961836185424 57 144 110 0.11890985603219904 22 3326 24 3377
7233 -4.5797079411273423 -1.3388073092934711 0.55538922576186145 142 139 140 1.7078516146282876 21 3402 24 3451 26 3514 23 3625 27 3667 18 3303 28 3756 29 3435 29 3724 31 3960 34 4146 36 4617 37 4532 38 5025 39 5020 20 3058
7234 -3.3364897096138306 0.76976684893878777 1.2277615454862121 43 34 29 1.9181072947726236 22 3442 24 3493 25 3517 26 3555 27 3580 23 3659 28 3665
7235 -3.5429148150627685 1.4961067984546257 1.2570435521561287 62 89 43 0.79894236771369542 18 3228 22 3458 25 3533 26 3574
7236 -0.25151618811233367 1.2466896765835691 -1.3974130105460398 84 83 84 1.4905744908105478 23 3533 24 3513
7237 -3.8765872799417145 1.9238690868874027 -1.0720980705798795 25 22 19 2.3935280565666215 23 3530 24 3516 27 3278 28 3356 32 3341 35 3469 39 4032 43 2029 44 1885 51 210 47 289 52 268 22 3465
7238 -3.4670623748803409 1.9130107580639335 -1.0692010152546032 28 26 21 1.4461459944495034 22 3475 24 3517 25 3543 26 3583 27 3296 26 3407 28 3357 29 3297 30 3035 31 3342 32 3340 33 3565 34 3405 37 3804 38 4317 40 2855
7239 -1.0411313795242054 1.5779208978807164 1.3105281103813502 77 139 125 1.0410454650756278 20 3301 24 3550 25 3582 28 3592 29 3563 30 3581 3 2256
7240 -0.58461571215790364 2.0520406956095365 -1.0668278554687594 60 58 56 1.0378915178054571 21 3627 22 3621 24 3584 25 3607 64 385
7241 0.88373853701900762 1.6529056310479109 1.4923274345808528 90 130 68 1.6340872790306296 22 3537 23 3614 24 3608 25 3638 26 3794 28 3754 77 2808 78 2850 76 2578 74 2211 71 2491 69 2345 68 2088 23 3452 24 3440
7243 -4.4804456376957011 0.10709708840215661 3.8193800771211657 39 25 16 0.1820711892094713 22 3569 23 3652 24 3632
7244 -4.2459082397096664 1.6641274939812918 -0.25695009693988563 34 98 72 0.95056108155048291 19 3446 20 3492 24 3645 25 3690 26 3729 27 3598 28 3555 29 3643 30 3657 31 3984 32 3919 33 4126 34 4166 35 4309 36 4551 37 4795 38 5051 39 5036 41 4351 42 4042
7245 -2.9525079361031041 1.4853825084641834 1.19595265967702 107 47 89 2.2982728951779334 21 3595 24 3654 25 3694 28 3785 29 3753 31 4097
7246 -2.0030889396712537 1.9857285068789206 -1.0709895815299726 107 106 104 1.2317405706600653 25 3577 26 3607 27 3484 29 3348 30 3391 31 3408 32 3384 33 3618 34 3648 35 3555 36 3814 40 3880 43 2094 46 1802 52 2447 53 266 54 282 55 2288 57 1978 63 1010 64 408 59 1340 60 196 50 444 62 993 61 354
7249 -3.2920008033993127 0.48104521142402029 1.8157782617570501 36 30 31 2.0217060713667987 22 3570 25 3848 26 3940 27 3851 29 3929 28 3955
7250 -2.9868351267752238 0.82325013258177893 3.5019334634208747 44 65 32 1.4698155089261167 23 3755 24 3719 25 3775 26 3722 27 3589 28 3675 29 3504 30 3531
7251 -2.2577792651157358 0.75395801015896946 3.8238560023250385 39 35 36 1.8449952972987753 22 3586 23 3513 24 3727 25 3783 26 3900
7252 -3.4479008013917039 1.5068221296028717 0.96522328157321768 62 90 42 1.0715967246139442 22 3680 24 3728 25 3788 26 3832
7253 -3.4479008013917039 1.5068221296028717 0.96522328157321768 62 90 42 1.0715967246139442 22 3679 24 3729 25 3789 26 3833
7255 -0.11787131847789281 1.7420573122548499 0.38192281604905859 0 0 0 0.091098064232278245 22 3701 23 3774 24 3744
7256 -4.8320784885321819 -0.087534999763566629 -1.0763692091203156 133 131 132 0.31089203536982735 22 3729 24 3775
7257 -4.7271614771237402 0.41919488533057181 -0.72530515607341584 88 37 42 0.5981514248657126 22 3741 24 3782 27 3735 21 3781 35 4454 41 4452 42 4151 45 3719 47 3518
7258 -4.7033286068521525 0.27216004517702658 0.88284938218351972 132 132 132 0.81226026240071114 22 3742 24 3788 27 3741 30 3803 39 5176
7259 -4.7033286068521525 0.27216004517702658 0.88284938218351972 132 132 132 0.81226026240071114 22 3743 24 3789 27 3742 30 3804 39 5177
7260 -4.1623494247542698 -0.1407157857380347 4.8550510680584624 75 88 94 0.1145523029202989 21 3745 24 3796 25 3845
7261 -4.7948059922271034 1.0935726330602611 -0.6036267832052411 82 37 42 0.42854378195874521 21 3747 24 3797 25 3850 32 4084 46 3475 48 3549
7262 -1.7498404805036121 1.0135590218549413 1.4868880918105709 58 22 48 1.0974764011670839 22 3762 23 3831 24 3806 25 3780
7263 -2.5720994506991808 1.1385594762704405 4.1920647210497677 116 77 78 0.9903525847674185 19 3512 24 3821 25 3882
7264 -1.5375809432571355 1.2778923823689705 1.6735463821983889 92 34 82 1.0715040039930868 22 3772 23 3843 24 3824 25 3881 26 3908 27 3767 28 3871 29 3849 30 3840
7265 -2.8973654313210351 1.7383183013578767 0.48492612217405168 65 103 110 1.0440798043476613 23 3845 24 3828 25 3885 27 3762 28 3865 29 3844 30 3835 31 4180 32 4171 33 4354 34 4389 35 4519 36 4762
7266 -1.1398454960206659 1.8938609565510962 -0.33651048070635758 122 121 119 1.5109363133833262 21 3766 22 3780 23 3853 24 3838 25 3949 26 3975 27 3839 28 3940 29 3859 30 3851 31 4195 32 4123 33 4315 34 4349 36 4651 37 4894 38 5144
7267 -0.049098448579655639 1.4559968628868905 2.4231220811328074 42 44 43 0.54475223146150042 20 3508 21 3700 24 3840
7269 -4.7418538265557659 -0.51404069883552583 4.9325011239043182 33 58 16 1.4568485719032669 21 3779 22 3796 23 3867 24 3853
7271 -4.1743918398731568 0.032360472435506105 3.2466840488756272 121 122 121 0.48647074520812222 22 3802 23 3870 24 3857 25 3910 26 3937 27 3808 28 3840 29 3815 30 3815 31 4161
7272 -1.3818865897216279 0.9673053138527028 1.5150478512859213 67 125 127 1.5357630096898627 23 3877 24 3865 25 3922 26 3950 28 3922 29 3901 30 3892 31 4228 32 4167 33 4349 34 4386 35 4514 36 4756 37 5003
7273 -3.8629424180001233 1.8227472456579257 -0.45060102514838168 54 35 106 1.7657907394950583 21 3795 24 3869 25 3924 26 3954 28 3918 29 3898 30 3889 27 3860 26 3995
7275 -3.5328616535918753 0.69037297098442518 3.0094130642900176 60 62 61 1.7351590059494415 22 3841 24 3906 25 3963
7276 -2.3071844117245961 1.8431506044947439 -0.17067270439277354 57 148 113 1.1967587483830229 22 3851 24 3912 21 3833 25 3971 26 4000 27 3865 28 3964 29 3938 30 3931 31 4246 32 4178 33 4361 34 4394 35 4517
7277 -4.5607206626292713 -1.0058067181649732 4.4840619355848768 101 105 106 0.48506195347036601 22 3827 24 3924 25 3981 26 4011 27 3878 28 3983
7278 -4.0875620788176903 -0.0075873873443145917 2.654485988033132 122 121 119 1.0289905008901865 21 3818 23 3930 22 3830 25 3991 26 4045 27 3910 28 4016 29 3978 30 3979
7279 -4.8195216392846749 1.1863294302607117 0.30724478379686943 70 36 35 1.1893564778301884 22 3876 23 3938 24 3937 25 3998 26 4029 28 3959 39 5279 38 5301 40 4949 41 4555
7280 0.27978824633126731 1.9704088055186184 -0.34996171372095281 117 117 117 1.6474438374786504 24 3948 30 3944 23 3949 31 4273 32 4214 33 4403 103 2300 102 2315 101 2324 100 2236
7281 -4.7176311874548276 0.31206944726318031 -0.7392276576290604 92 41 46 0.64556081019041578 22 3888 23 3954 24 3952 25 3985 26 4016 27 3881 28 3986 29 3953 30 3951 31 4281 32 4223 33 4411 34 4450 35 4570 36 4807 37 5052 38 5294 39 5272 40 4942 41 4550 42 4258 43 4024 44 3806 45 3799 46 3554 47 3616
7282 -4.7176311874548276 0.31206944726318031 -0.7392276576290604 92 41 46 0.64556081019041578 22 3889 23 3953 24 3953 25 3986 26 4017 27 3880 28 3985 29 3952 30 3950 31 4280 32 4222 33 4410 34 4449 35 4569 36 4806 37 5051 38 5293 39 5271 40 4941 41 4549 42 4257 43 4023 44 3805 45 3798 46 3553 47 3615
7283 -4.5233815115379441 1.3441165109409023 1.2010261394980419 62 64 61 1.6817491353467098 21 3878 24 3965 25 4022 26 4048 27 3916 28 4026 32 4261 33 4451
7284 0.97721410558319777 1.6595460741949821 1.4119727982229109 98 140 73 1.0251203177881361 22 3907 23 3970 24 3977
7285 -4.7043875345165596 -0.0087898711192128734 -0.88400812155477893 134 134 134 0.62632758417785239 22 3908 23 3973 24 3979 25 4033 26 4056 27 3923 28 4033 29 3997 30 3999 31 4330 32 4247 33 4437 34 4473 35 4593 36 4828 37 5074 38 5314 39 5293 40 4979 41 4584 42 4288 43 4052 44 3839 45 3832 46 3566 47 3632
7287 -4.8178273207129214 1.3393829589831849 -0.64212673417917987 129 131 130 0.82886247953528347 22 3913 23 3983 24 3984 25 4040 26 4063 27 3929 28 4037 29 3983 30 3983 31 4314 32 4257 33 4448 34 4483 35 4601 36 4835 37 5082 38 5324 39 5304 40 4967 41 4574 42 4278 43 4046 44 3830 45 3836 47 3636 48 3632
7288 -4.5184872441430999 1.896949801850252 -0.73210448098328795 41 47 45 0.82266880431335987 22 3919 23 3991 24 3991 25 4049 26 4076
7289 -0.26560960982046783 2.0583521641583102 -1.1109224144579051 57 153 116 1.3588487100191624 22 3924 23 3995 27 3935 28 4042 29 4005 30 4004 31 4333 32 4278 33 4465
7290 -4.4910402541991434 -0.57084954889917638 -0.95970647779470764 63 63 63 0.45862980922781088 24 3997 25 4053 26 4080 27 3944 28 4054 29 4019
7291 -4.8091181164711072 1.1770388170031014 0.28866638592159627 70 34 34 1.0106950140647972 22 3932 23 4001 24 4001
7292 -2.8860910942334592 1.3336704355921751 2.4629491484989674 65 65 64 1.5924097526680669 14 597 21 655 23 688 24 1790 17 658 19 652 20 626
7293 -0.52935211405711113 1.4579949775317991 2.2639182505944326 50 51 53 1.6005475656502295 15 889 17 918 16 914 19 948 20 922 24 1967 16 913 18 896 25 2618
7294 -2.9210609971756338 1.3499920425341079 1.9728553463712803 25 21 19 2.0152794628500676 17 643 20 609 21 1793 24 1775 3 490 9 520 11 545 17 644 19 640 22 1757 23 1749 23 1750 25 1842
7295 -3.8745095535201259 1.5546407245353779 0.85995650190642836 65 78 65 0.75150000613706891 12 640 17 586 13 572 18 1702 20 553 24 1748 21 2489 23 2500 25 2856 26 2518 28 2487 29 2470 30 2536
7296 -4.2461139849367253 0.01554583642388903 3.6884049034829451 108 107 107 1.2697539399890008 12 223 20 313 24 282 4 189 13 236 22 340 17 300 20 311 25 1663 27 1692 28 1716
7297 -1.008759950207599 1.3113456972164803 2.9409456818733983 45 45 44 1.1905272340046167 17 825 20 783 24 1894 18 807 19 792 22 849 25 1941 26 1946
7298 -3.2974039541768385 -1.6323423543041471 4.4834170964915918 108 17 53 0.91473949575387936 11 3234 2 2871 3 2879 4 3029 8 3077 12 3288 13 3186 24 2980 17 2497 20 2493 18 2479
7299 -0.094794825694056173 1.4960656227569615 2.0377088449447043 120 121 117 1.1091715281497465 6 775 8 788 10 859 24 2554 12 957 15 965 16 986
7301 -4.5831664332244051 -1.9838539082136528 4.3845920707470771 62 62 61 1.7684489042899481 11 3353 5 3083 7 3226 8 3246 9 3400 12 3480 13 3304 14 3195 16 3291 17 3294 19 3190 21 3405 22 3550 24 3453 4 3023 7 3076 9 3214 13 3185 15 2873 5 2820 8 2598 6 2601 9 2725 10 3087 14 2546 16 3013 17 2135 18 2750 19 3043 21 3242 22 2944 23 2704 24 3228 25 2685 25 3645 26 3026 26 3683 28 3208 28 3653 27 2631 28 2669
7302 -0.098605793529013996 1.734377379913369 0.79908361208614909 132 132 130 1.4163855691761136 2 2335 3 2300 4 2475 1 2115 121 2115 5 2430 6 2486 8 2499 7 2526 9 2642 24 3191 16 2709 19 2728 22 3207 25 3466 26 3496 27 3388 28 3474 29 3584 30 3607 31 3934 32 3872 33 4090 34 4127 35 4274 36 4506 37 4759 38 5012 39 5007 40 4675 41 4312 42 4002 120 2214 43 3733 119 2011 44 3542 45 3530 118 2027 117 1865 116 1871 115 1952 114 1804 113 1863 112 1866 112 2105 111 1961 110 1942 46 3303 48 3395 49 3289 109 2009 108 1963 107 1933 106 2078 50 3574 51 3498 52 3670 53 3655 105 2034 103 1972 102 1945 101 2071 100 1833 98 1750 97 1666 54 3416 55 3150 56 2909 57 2675 58 2294 83 1787 77 2732 73 2165 71 2376 67 1936 66 1832 65 1704 63 1629 59 1936 60 1736 62 1544 61 1540
7303 0.85557645887158906 1.6318093217562581 1.5733978694910347 186 186 182 0.58265614534150356 12 2986 13 2889 15 3064 19 3019 24 3609 17 3016 23 3611 27 3665
7304 -4.6609562905746706 -0.57011801840700815 2.654939023454749 99 96 94 1.2337602027738088 11 2390 8 2259 12 2437 14 1650 13 2337 21 1482 19 1487 24 134 32 1901
7305 -1.5954992568189073 1.4833237793720901 1.6108348348328039 131 59 122 1.430948333278202 20 2357 24 2886 19 2351 21 2846 22 2822 23 3175 24 3152 25 3161 26 3444 27 3334 28 3581 29 3540 30 3679 31 4006
7306 -1.6984954782894974 1.4652992338187703 1.7758916007510286 67 67 66 1.6104385638024319 5 714 6 698 10 684 14 768 20 1757 6 697 16 1851 23 2544 25 2564
7307 -3.5141983835209363 1.4254976368371741 1.2743952257208089 73 67 66 0.8750840425088775 22 1739 24 600 25 675
7308 0.83773231740743603 1.7953152826624199 0.45195677156168274 148 114 151 0.098031694680377035 23 1374 24 1387
7310 0.8058743980628067 1.8303553553660183 0.6071121865009862 144 108 146 0.030259341026551277 23 2289 24 2258
7311 0.47003940365935537 2.0127297719202382 0.94820258127587032 147 106 148 2.6155047895147652 22 2149 24 2269
7312 -4.603563152177963 0.36059992423292864 3.2759189336943741 91 65 92 0.71225236553602755 22 3010 23 3042 24 3029
7314 -1.9450015476140619 0.66855952640627447 1.4728084465960181 52 52 52 2.7834521777552665 17 3507 24 3803
7315 -4.5755741213466257 -1.9730484907941963 4.2097363924120534 65 67 64 1.2772545744575163 14 28 22 1444 25 40
7318 -3.3919696707519185 -0.79696715747724745 1.3501513859383958 140 135 132 1.2416408843464137 14 58 25 94
7319 -0.49605232826642243 0.055393025949389045 -0.69825734239089199 89 44 47 0.84925341604879334 16 114 25 127
7320 -2.7720728412655871 -0.17092255975280846 -0.26408675055270497 84 45 49 2.0565268871282321 21 126 25 130
7321 -4.6579469801417348 -1.2066103405745878 4.5574501916642562 54 35 33 0.039602951801622474 9 95 25 157
7322 -4.6016993093088772 -0.56044206568215393 2.677621034711875 108 134 126 0.35121715536068987 23 1463 25 168 28 172 30 2431 34 210 32 169 33 182
7323 -18.662136288035207 -1.4673582394507692 11.613979616723199 105 98 92 2.2854768441409967 17 1528 25 232
7326 -4.2433763040138279 -0.13411866836314115 4.064404512387032 50 51 45 0.19445891511276367 23 301 25 281 27 1698
7327 -4.7540315571448879 0.76996682279578943 -0.49470598814432326 84 43 47 0.22224270022447393 20 1532 22 373 25 304 21 1587 33 257 27 290 42 185 45 158
7328 -3.6116343199246241 0.45859698475305583 2.0888099001589135 42 38 34 0.29487813284099607 23 355 25 366 36 2649 37 2856
7329 -3.5021744753261728 0.3440471615318787 3.1334532549911107 35 18 12 1.8259004393887412 22 387 23 1562 25 376 26 338 27 346 32 3063
7331 -4.7868586779134645 1.1531311439555649 -0.66594071153296186 81 34 42 0.14804830190524312 21 448 25 401
7332 -4.7707350298382192 0.97860905992525871 0.25958394439762217 76 40 45 0.064067906315807652 20 353 25 414
7333 -3.0751746907848529 0.74800592908198338 1.2101027705681007 80 80 82 1.1824353319691951 11 307 25 430 26 383
7334 -2.4982716440428008 0.46255709827548741 2.8825429250796137 106 106 105 0.25973071751803245 16 383 30 412
7335 -3.0048720347475806 0.48844739735668491 3.2204417281739111 41 42 41 1.4643905333331162 18 405 29 437
7336 -1.9526654380437185 0.37816572630074446 3.2401212440568385 128 127 125 0.012249218256513913 17 404 27 1780
7337 -4.8956645763943873 0.7914846154281121 2.8763965609409419 111 107 106 1.2869231142470516 23 500 24 464 25 526 31 439
7338 -4.7824483137912557 0.79320821281637832 2.8747071014389922 36 34 37 1.1678921892873639 12 335 25 529 11 1909 34 2319
7339 -4.3214213388105751 0.66585024536818083 4.2677176049845436 110 112 109 0.11895740417438766 21 483 25 543 27 1770 28 499
7340 -3.254788167256164 0.53430178808278539 4.9778209135339901 11 86 19 1.4179840195009386 13 2784 14 2677 25 555
7341 -3.8845870277654422 1.4781522253727477 1.1288409830636883 73 76 70 0.37174607751226357 22 657 25 599 27 1795
7342 -4.2678435126154159 1.2388300937860928 2.4816116471363339 85 84 82 0.2655882081186639 21 545 25 622 27 561
7343 -3.4618053012931047 1.1026701247507849 3.6015920639363266 94 94 92 1.1220594995936981 22 625 25 647 26 1812
7344 -3.579357422093616 1.1127840657407628 3.6906216725107646 94 94 92 0.51740573600648088 22 624 23 609 25 648
7345 -3.4192848239101807 1.3934302175162323 1.9145870664394495 71 70 68 0.43442889335032414 21 603 25 681
7346 -3.3580038440545832 1.3706082538549247 1.9987561658290436 24 21 17 0.39756668650273419 21 609 25 686 26 640 27 1832
7347 -2.9338927493964948 1.3708643086712726 2.0014214160731911 90 90 90 0.76976794693299078 17 646 20 612 25 692 26 1854 21 645 29 2519 30 2579
7349 -2.9618614589016423 1.0894383914130112 3.506727665229826 19 21 18 0.33755585134371824 23 623 25 711 26 667
7350 -2.4905828429171084 0.99107344539260389 4.4070534801311467 23 24 22 0.15492110456057973 23 706 24 651 25 744
7351 -1.8980575285045138 0.97153525213852032 3.8284743576473854 70 75 74 2.0211837983529355 23 709 24 650 25 745
7352 -2.7768294583157433 1.0293483193967587 4.8778174018481906 112 114 113 1.2862979034402526 22 745 25 765
7353 -2.4461598648784033 1.2162843467058797 3.0341355509484536 20 25 21 0.29380869973790252 23 701 25 801 26 755 28 1900
7354 -2.2745114660724024 1.2331279215209416 3.068766539044872 20 20 18 1.5183853477297415 23 767 25 813 28 1902
7355 -2.3237499548911109 1.2079316784657301 3.2100697211398921 17 20 16 0.79763148811771001 21 674 28 1903
7357 -1.5157398772043962 1.3468270216847988 2.5242116959382854 141 91 122 0.096749251391271954 23 819 25 864
7358 -1.3675568014791299 1.2884898110088554 2.6500516693057254 114 45 91 0.24885318646462734 21 789 25 866
7359 -1.5034142135669357 1.2189284265842102 3.2085999015334812 134 133 135 0.12079939503439602 21 724 25 872 20 698 26 845
7360 -2.1748931598699515 1.8052594700291598 -0.087341960879581307 69 68 66 0.72420496560642389 25 886 36 781 39 687
7361 -1.554546099208036 1.4134127126496043 2.2407135124208826 66 59 66 0.6610871099811293 23 813 25 891 24 777 29 752
7362 -1.0719711948336899 1.2863493259499299 3.2135150399792232 79 79 76 0.3936772001132629 23 879 25 912
7363 -0.55970461372289615 1.4608992258393085 2.1530594131784606 117 57 100 0.28936065684837964 21 944 25 945 22 941 27 906
7364 -0.54649362253660216 1.4408584092010797 2.2963921690005344 114 122 136 0.14045615849570511 23 916 24 897 25 947 27 908
7365 -0.17088936960676346 1.5326021265770009 1.1245216633785502 128 97 134 2.5432761251352241 23 1930 25 976
7366 -0.45098070469300355 1.6692998314547518 1.7874146717635508 146 110 148 0.017501043088262121 18 1001 25 999
7369 -0.063952885960855244 1.7032912170229979 0.46935250962371711 180 180 178 1.1272509167666991 23 1032 25 1010
7370 0.46291268025507787 1.5607673929360082 1.1140212875686293 69 62 78 1.9032463668058106 24 985 25 1016
7372 0.099227293686336995 1.7173974257102798 1.4441296787534772 115 91 146 2.0002106017390089 23 1050 25 1036
7373 0.40001643334931075 1.6828192006582656 1.2145221090299898 106 72 86 0.13539696814188862 24 1007 25 1037 73 1482
7375 -0.10821235766582819 2.0690993916429217 0.7109308110446213 150 113 153 1.7252603116144072 24 1037 26 1038
7376 0.42911660813092395 1.8214534984437178 0.41885493728010159 128 93 131 0.19173487732833064 24 1039 25 1076
7377 0.51999244048997451 1.9223289755593345 -0.089831795693751534 96 76 87 0.46107826605266827 22 1402 25 1225
7379 0.82653515846777681 1.8047000364074053 0.73617564962744109 143 107 145 0.35459176409775389 23 1335 25 1479 26 1487
7381 -0.36906423749946871 0.13183036480402915 -1.0620691335515222 140 138 139 1.0434906836645703 17 114 25 1549
7382 -0.45789286411930191 0.13025851242589354 -1.0879452375309604 0 0 0 0.14609399900616318 18 1433 21 1459
7383 -4.6730454029122246 -0.12266390578039991 0.77035718836955003 77 31 38 0.64670623313527409 14 2588 15 2635 21 195 25 1587 26 1600 33 2992
7384 -4.2440634819360978 -0.062595955090987893 3.6744615117069355 103 107 106 1.2377799844268818 19 275 24 1591 25 1636 26 1674 27 1690
7385 -4.241944150679509 -0.06302599114415415 3.6728139459512423 103 107 106 1.4206340485020765 19 276 24 1592 25 1637 26 1673
7386 -4.737972325827827 0.35463776703686184 1.8055445625612678 139 134 132 0.0025200527726915371 11 1863 25 1652
7387 -4.2513450668547463 0.015240759698613581 3.5837246383143992 44 27 24 0.1485531958488038 21 1578 25 1659 22 1576
7388 -4.3799875799676187 0.58402649268728313 3.8944045796924858 53 23 21 0.29960407549817986 23 422 24 1632 25 1704 26 2439 27 2385 28 2743
7389 -4.2763060190109181 0.22730839830177554 4.9114538909092484 1 4 8 0.11753951175215835 23 1565 25 1713
7390 -2.3853159579058874 0.83339335082275945 1.1895562828359167 136 133 140 1.7459104805878336 23 486 25 1728 26 1731 29 2407 30 1768 26 448
7391 -5.0600591826876045 0.85309465472208157 4.6393225949670631 20 24 23 0.87404333175331617 24 1690 25 1763 29 1761
7392 -4.8166311492303056 1.5964808294663824 0.3875225813854743 29 31 30 0.25957593814692742 22 1700 25 1769
7393 -4.3779921717845935 1.3403230318877237 1.7875157112747919 40 28 40 0.82716516288006592 11 438 25 1781 26 1799 30 2515 31 2818 32 2851 33 3333 34 3390 35 3487 36 3779 37 4250 39 4540
7394 -2.4056233431959924 1.0691489127793958 1.2568595057531817 26 21 25 0.9758437204020618 23 582 25 1783 27 2425 28 550
7395 -3.2700194366218152 1.1113568036919006 3.4024978915522999 17 15 14 0.67429009890228153 23 606 25 1792 24 577 29 1867
7398 -2.4020634168239243 0.74388339601139652 4.1699717053532828 34 38 40 1.4158903403951164 23 1665 25 1798 26 1818
7399 -3.076235229107648 1.5041832407214462 1.3241703081595748 93 85 102 0.61031151358142177 23 1728 25 1812 30 2573
7401 -2.9755662493440189 1.3698068410159767 1.9559218354521977 22 18 15 0.70315551912038388 22 708 23 679 24 622 25 1840 27 1844 26 1847 30 2576
7402 -2.9866336467857875 1.3707299738981469 1.959968920406129 22 18 15 0.59105315657260038 22 709 25 1841 26 1848 24 623 27 1845 30 2577
7403 -1.461437566524983 1.0599366255333464 1.7060547486266471 111 103 115 0.41136459175855022 22 1777 25 1848 23 692 26 1859 27 1853 29 2493 32 2928 33 3140 34 3443 36 3612 35 3542 37 4082 38 4383
7404 -2.9350255473110569 1.1432300555176456 3.2469745739608005 19 19 21 0.20868237208224127 6 373 24 638 25 1853
7406 -2.0663965303853216 1.2349046737846399 2.7234243821320359 22 20 21 0.98288036852723559 20 661 25 1866
7407 -2.1425013702025288 1.2527851791947096 2.8061109554698156 16 18 15 0.83400809437681955 21 712 25 1867 118 491
7408 -2.0333537674556705 1.1487484758249307 3.6237567672000441 27 31 28 0.35258346438139654 22 740 25 1870 23 772
7409 -2.1671943775126454 1.4547404920194742 1.7493056510508402 106 96 102 0.31869844723308077 1 772 121 772 25 1878
7410 -1.6329986396155887 1.4316861869962334 1.9174232783779188 84 82 83 1.0962372014088775 23 1803 24 1845 25 1886 28 2566 30 2883 31 3187
7411 -1.4858059538511676 1.4013527532019974 2.3364504628408649 113 115 114 0.85409132940592924 17 810 21 780 25 1916
7412 -1.0181416393425504 1.3524779262409952 2.6301521527281482 88 74 108 0.32418308244810401 23 1850 25 1936 22 1863 26 1963 28 2592 29 2577
7413 -0.45954593710545705 1.2343145672903428 2.5336902973608564 93 93 91 2.6704159794231659 22 893 25 1950
7414 -1.0322950056617275 1.5467351291507165 1.622613089134598 32 31 34 0.032218715630991726 23 906 25 1969
7415 -0.59032090195823139 1.319112078284258 2.8296534131543067 65 67 64 0.68866715899826314 21 889 22 900 25 1999
7416 -0.57708404708317429 1.3162060872195931 2.8720484985911878 95 99 95 0.33219518767981704 20 867 25 2000
7418 -0.57594816192328813 1.4418829207818724 2.2824387112257476 96 69 117 0.18301750273781758 23 913 25 2014 26 1992 27 1954
7420 -0.54187003280295898 1.598635039699448 1.4404443620778549 139 109 141 0.20527421310340976 21 1950 25 2029 28 1978
7421 -0.12191606714238007 1.4787544049067496 2.2162435757702066 81 82 77 0.29271007699385665 23 1014 25 2043 27 1983
7422 -0.093164942412088114 1.7299570817518028 0.83744565658486936 66 73 68 0.48418895545265972 13 1089 23 1038 25 2062 12 1071 77 795 75 1491
7423 0.40330111566896848 1.707755454759337 1.0812856080765061 109 78 89 0.30304499305559718 24 1006 25 2082 26 2057 29 2019 79 2172 77 753
7424 0.55847537841042816 1.6755665012167757 1.3061381487975314 114 86 98 0.031962013431379985 23 1106 25 2083
7425 1.1706836949232695 1.567874557795871 -0.51036688773052097 132 63 112 2.5056477001195576 24 2089 25 2107
7429 0.83445846613136565 1.7947805645350012 0.75684037271715043 145 109 147 0.25261903660167984 23 2220 25 2329 26 2310 24 2275 27 2278
7430 0.83519954423210518 1.7944194388393691 0.75643700682495907 145 109 147 0.274078856515372 23 2219 25 2330 26 2309 27 2279
7431 0.85655744313854498 1.7788753494712188 0.82718033698796989 146 109 147 0.13141778164731618 21 1383 22 1383 25 2334
7432 -3.2069680298445311 -1.592452510350769 4.3045940184213878 96 9 44 0.54103505183514788 1 1907 121 1907 25 2348
7433 -4.6074951671560322 -0.12539003022867184 0.83293315917470856 131 66 44 0.99257573866354765 18 2767 25 2366 27 1613 30 141 35 194 28 158
7434 -4.7121385900164334 -0.84721526341121722 4.6754710296569337 60 32 26 0.14049673313982644 22 2316 25 2371 26 2359
7435 -4.2421787030131393 -0.0020771909158810785 3.5496750422641408 97 99 98 0.16510198804967552 20 1520 25 2401 21 2408
7436 -4.2720769464739643 0.083162546928249023 3.5773994343821278 103 100 98 0.24253849874649561 24 2337 25 2402 27 2669 26 2771 28 2714 30 2705 31 3293
7437 -4.2537379709416721 -0.11291206219043405 3.9729557367699888 83 85 84 1.4523894793867276 22 1553 25 2406 28 2375
7438 -1.7579324354625072 0.45499222372806203 1.3970790459573565 63 47 34 1.7275828415602905 24 2346 25 2417 31 368
7440 -3.7491863020240581 0.61614252131881908 5.0293099948689886 22 24 63 0.76261345084242615 22 1671 23 522 25 2476
7441 -4.3948915089173877 1.581396609149859 0.51924537608052745 66 61 63 0.0062454364789856325 23 2472 25 2486
7442 -4.3174812092665498 1.4679795294816222 1.2255959348018091 124 123 122 0.81298785008956787 23 2479 24 2426 25 2493 26 2486 27 2734 28 2798 29 2751 26 2838 30 3016 31 3096 32 3331 33 3555 34 3598 35 3910
7443 -4.3375474265554423 1.3604489825302897 1.7585828693582564 41 95 72 0.43037152687539071 13 1916 15 1838 24 1715 25 2502
7444 -1.3411180705240415 0.99494273352375173 1.4601685890186438 38 73 81 0.1270316460726981 21 2478 27 2465
7446 -2.7435885856079283 0.84908018080937386 4.357740437336596 0 0 0 0.20122110092517237 10 374 12 403
7447 -1.4651268954139487 1.0949949683277171 1.7307897027002985 23 21 22 1.3004315935292354 22 1778 25 2536 21 1806
7448 0.15000024562522279 1.0822242964322117 -0.80573046833712703 57 42 113 3.0500856287797449 9 2575 25 2540
7449 -2.922788426242469 1.5912130372730373 0.78071074952411035 58 54 52 0.48357330330288928 20 1733 25 2543
7451 -1.5058685229112598 1.379719604068306 1.8021872778433898 38 34 37 1.5983287063047307 23 1799 24 1838 25 2567 22 1814 26 2568
7453 -1.9585712865053631 1.3484842445143392 2.3092765897939915 108 42 92 0.62374137788563444 4 1820 25 2576
7454 -1.5598525590802452 1.6912568190858717 0.29298322646348923 0 0 0 2.1680263064346854 17 1841 22 1891 21 1917
7455 -1.9278346003911631 1.6468588681059459 0.83990664250872393 128 128 127 0.12976374161133436 12 907 119 1704
7456 -1.5299621828188295 1.7606697828413562 0.30447104990291129 141 66 122 0.042120913457628875 23 2580 25 2605
7457 -0.35976916683476473 1.6932392900151356 2.0960294957546495 104 77 128 1.133613494562919 16 1989 25 2633
7458 -0.16468770273417693 1.7660352417012952 0.36442355703986534 218 220 219 0.20629866812271699 22 2577 23 2646 25 2643 26 2665
7460 0.87512999497216626 1.6490076052158023 1.5175927941931993 91 136 71 0.61710518025747207 19 1078 24 2623 25 2665 28 2661 68 1835 67 1741
7461 0.87851555856151509 1.6288823707774338 1.62439612590133 98 140 74 0.56193258287953363 21 2066 25 2666 27 2622 28 2663 29 2632 71 2155 70 2147 69 2073
7462 -4.527506588221093 -2.2272144883990523 4.1136528877252108 103 102 98 0.81227781210407946 19 2142 25 2680
7463 -3.3865118482979666 -1.2849352596682744 4.5047618558209299 104 13 93 0.36928316120087656 17 2781 25 2692
7464 -3.4043361683954902 -1.2891099076253552 4.5197447583908215 104 13 93 0.50221107304279278 16 2765 17 2780 25 2693
7466 -4.6598286623532124 -0.54009896441427496 1.1405482640565316 142 142 142 0.1588058601995358 18 2485 25 2697
7467 -4.2099844175927306 -1.3376228817226483 4.5609714919213067 40 76 69 1.0964598249012505 17 2507 25 2703 24 2666
7468 -3.4681686182112257 -0.99783137369764119 4.5928776255700408 94 103 110 1.3697944381293534 21 2370 25 2719
7469 -4.5768770587591385 -0.8816399481845858 4.6862235591858061 37 63 23 0.80620561754866182 4 2611 25 2725 5 2585
7470 -4.2918194058215269 -0.17074908022857066 4.7638678966659551 88 90 89 0.19086238232787225 23 2778 25 2761 22 2707
7471 -4.2620647992427534 -0.17052114742185939 4.738949708884677 88 90 89 0.39208232159030143 23 2779 25 2762 22 2708 26 3061 27 2950
7472 -3.4504197479070098 -0.05252905111578781 5.2672355278565588 92 107 116 2.0795991774286833 16 2550 25 2768
7473 -4.6517693240016884 0.78700019084559192 1.362240278805706 133 131 127 0.53574802712287295 23 2405 25 2770
7474 -4.3120273148096055 0.64979216220543445 4.1024398303702201 99 101 98 0.24787499337600485 21 2444 22 2394 25 2791
7475 -4.770668381174076 1.5162030578366916 0.81724775047747911 20 20 18 0.092762318486133213 23 2841 25 2816 27 2726
7476 -3.9484115793187038 1.504357220000204 1.031679036201681 32 31 29 0.88564436865032325 21 2493 25 2824 26 2841 27 2733 28 3056 29 2970 30 3013 31 3328 32 3604 33 3842 34 3819 35 3915 36 4147 37 4404 38 4691 39 4700
7477 -3.3836237985140358 1.2585601045207215 1.2262789545241686 73 59 76 0.66109305136437979 23 2847 25 2826 27 3005 30 2780
7478 -3.3855438086739005 1.2779380399898643 1.2061042936657365 40 98 74 1.4182695248987354 19 2284 22 2763 25 2827
7479 -2.4298579810705125 0.80478786387403844 4.0985473792937182 101 105 104 0.70203075895058109 23 2861 24 2829 25 2839
7480 -3.0084595245470767 1.0801170924626406 3.5221025106006079 24 24 22 1.0179079557295472 21 2797 22 2772 25 2866 27 3031
7481 -3.5320466117792302 1.8297921340687862 -0.32319670103826476 60 101 95 0.1985789799922919 19 2681 30 2795 43 3107
7482 -1.5108610433665186 1.3916624184135535 1.7185213929439778 14 19 15 2.1212674580815047 22 2475 24 2497 25 2886 21 2535 20 2358
7483 -1.5025890401124993 1.4123957620773888 1.8082066608505465 25 25 23 1.5950123127369509 23 2550 25 2891 24 2889 26 2925 27 2828 28 3133
7484 -1.5981263769750802 1.490530888980091 1.5609393838588481 140 64 125 0.41276582987787069 23 3174 24 2902 25 2900
7486 -1.4795899790854721 1.7706896165137811 0.39419139139106191 68 174 133 2.4031042348253058 4 2781 25 2909
7489 -0.36410115919595565 1.7944074777976262 0.37290635525151422 74 80 76 0.10173731602147121 24 2943 25 2941 26 2979 28 2948
7490 -0.058617313023739348 1.7676092957497578 0.35593281918409359 0 1 0 0.23180093886890574 24 2950 25 2946 26 3003 27 2893 28 2960 29 3110 30 2950 31 3260 32 3266 92 1036 91 1039 90 1204 89 1290 88 1541 87 1643 86 1960
7491 0.37760011298278123 1.6581564261761492 1.3462421096995378 104 76 136 0.59166032858244533 23 2659 24 2610 25 2951 26 2675 27 2902 28 2970 31 3272 32 3276 34 3542 35 3657 80 2816 77 2592 75 2081 76 2358 74 1980 73 2086 72 2233
7493 -1.6924389491099279 0.37709051703163121 1.6155983991683756 87 65 88 0.25992212527385233 21 3012 26 3275 30 3209
7494 -2.5992291160035199 0.35489122612292845 2.2991667641218028 0 0 0 0.5238287404703299 18 2795 20 2851
7495 -4.3732669742978167 0.52561731202848139 4.5782502427836205 51 53 50 0.24245710571953916 23 2808 24 3055 25 3048
7496 -3.0364992370212338 0.56080990143232645 3.7257775694806039 47 48 46 1.3450797170229014 22 2737 23 2819 25 3051
7497 -4.8276811346234378 1.4517797774642569 -0.39833000103034827 128 134 131 0.62978060052884988 23 3081 25 3054 38 4277 28 2410
7498 -3.4459150737975697 0.86154496991556817 3.0875477071519657 22 38 40 0.91171597621463363 22 3080 25 3059 23 3356 26 3093
7499 -4.718127612251469 1.7955021942109992 -0.68357719930978778 17 17 15 0.22111104943212423 23 3112 25 3069 26 3104 27 2985 28 3044 29 2955 30 3000
7500 -4.7409721120239423 1.7978413653729561 -0.68220220814656374 17 17 15 0.4353355600527874 23 3113 24 3069 25 3070 22 3109 21 3108
7502 -3.9405519219559082 1.4511411055205061 1.2603357849332897 45 40 40 1.2327082224013211 22 3084 25 3080 27 3267 29 3285 31 3839 33 4016 34 4056 35 3919
7503 -3.881456418785278 1.4479179680204266 1.2421397871863435 45 40 40 0.88078741144565287 22 3083 25 3081 27 3268 29 3286
7504 -3.8932988687788246 1.4404858038964174 1.3118985973111281 37 97 69 0.59884991607337834 23 3090 24 3337 25 3082 27 2737 28 3059
7505 -3.3679686430767433 0.89323631298061179 4.2159276131741859 53 54 54 0.77195675267678932 23 2833 24 2825 25 3095 26 3120 27 3006 28 3066
7507 -0.58434911048642435 1.8071706183456768 0.2942863903002248 104 103 101 1.1706776914875308 2 2363 1 2143 121 2143 117 1903 73 2074
7508 -0.031141780719623965 1.7491273645716283 0.38731079114766281 220 220 220 1.1017651142996745 24 3189 25 3196 26 3227 27 3110 28 3189 29 3113 30 3157 32 3473 31 3489 34 3737 36 4062 38 4626 39 4625 40 4353
7511 0.70589541423095359 1.7040161439536046 1.3676765165553939 80 71 73 1.4412292821209656 21 2934 25 3221
7512 -4.6553108839845327 -0.18201157378519525 -0.70371823505849462 140 139 140 0.79729910068631638 23 3468 24 3229 25 3229 28 3211 30 3182 44 3562 43 3747 45 3555
7513 -4.6528126430923216 -0.45138714255670498 0.71096260009083168 146 148 147 0.13541193215796371 20 3063 25 3230 30 3183 33 3721
7515 -4.2466227491462316 -0.016682605866056653 3.3464695982197634 64 60 59 1.6625220417643716 15 3138 25 3246 8 3099 7 3096 26 3264 27 3144
7516 -1.7140292081732138 0.68219997331302884 1.6361695345782992 106 76 112 0.21795718471495742 24 3318 25 3327 26 3349 23 3341 27 3234 29 3238 30 3277 32 3591 34 3801 33 3821
7517 -3.9915311848695536 0.47317036074851293 4.8721057432789205 71 85 94 1.4108743222655289 23 3352 22 3271 21 3282 20 2900 19 2595 18 2572
7518 -4.3467357786395233 0.927193282339563 3.9869123336380907 31 53 55 0.27963267800434077 22 3081 23 3087 26 3095 24 3061 27 2978 28 3338 29 3293 30 3330
7519 -3.8520294400601176 1.7370882414139752 -0.049795925163990853 96 94 96 0.55462780605112139 23 3122 24 3102 25 3358
7520 -3.8520294400601176 1.7370882414139752 -0.049795925163990853 96 94 96 0.55462780605112139 23 3123 24 3103 25 3359
7521 -2.4983888367023681 1.8615838619199301 -0.52574108132359199 69 69 67 0.26637843096770647 23 3389 24 3376 25 3390 26 3424 27 3316
7526 -4.6227424283932113 -0.23979404906762497 1.045084421868538 127 62 42 0.97270444074021611 23 3479 25 3493 35 4067
7527 -4.2622251603968149 -0.098448126067380681 3.5230178806901864 87 86 82 0.097276550287959229 21 3431 25 3503 26 3536 27 3424
7528 -1.7193755504728108 0.51113295611081666 1.4342035995316256 110 78 115 0.32531116078733385 24 3494 25 3518 26 3556 27 3445 28 3542 29 3474 30 3508 31 3811 32 3765 35 4093 36 4336 37 4594
7529 -2.4126160057284309 1.4959525017655591 1.6439008495177414 31 27 24 1.5805016982569282 22 3471 25 3547 27 3613 28 3686 29 3661 31 4102 32 4032 33 4230
7530 -2.3709346699688125 2.0102738007726675 -1.2415673072640911 109 109 107 0.4711454207339133 23 3554 24 3530 25 3560 26 3439
7531 -2.0538883867475044 2.0028153617070763 -1.1617722992284516 119 122 125 0.48173656881962862 23 3561 24 3544 25 3575 26 3617 27 3482 28 3410
7532 -2.0650489204397133 2.0054909733378943 -1.1615653289649168 119 122 125 0.26611668721375259 23 3560 24 3545 25 3576 22 3496 26 3618 27 3483
